ply
format ascii 1.0
element vertex 1109
property float x
property float y
property float z
property uchar red
property uchar green
property uchar blue
end_header
-11.150833 -42.307734 -14.220847 230 230 230
-11.263851 -42.432622 -14.407569 230 230 230
-11.376698 -42.557215 -14.592773 230 230 230
-11.476580 -42.475233 -14.613279 230 230 230
-11.587269 -42.601246 -14.793150 230 230 230
-11.696140 -42.729496 -14.972191 230 230 230
-11.804084 -42.859169 -15.151501 230 230 230
-11.910901 -42.991013 -15.332384 230 230 230
-12.016299 -43.125934 -15.516192 230 230 230
-12.109845 -43.054168 -15.537775 230 230 230
-12.213831 -43.191901 -15.723677 230 230 230
-12.317458 -43.330335 -15.910112 230 230 230
-12.420626 -43.469528 -16.096704 230 230 230
-12.524140 -43.608160 -16.283225 230 230 230
-12.628263 -43.745773 -16.470146 230 230 230
-12.723963 -43.670613 -16.489713 230 230 230
-12.834550 -43.797630 -16.673828 230 230 230
-12.948867 -43.918463 -16.856433 230 230 230
-13.065080 -44.036109 -17.038263 230 230 230
-13.182349 -44.151886 -17.219495 230 230 230
-13.299980 -44.266747 -17.399894 230 230 230
-13.417176 -44.381540 -17.578513 230 230 230
-13.533887 -44.497073 -17.757437 230 230 230
-13.649936 -44.614292 -17.938616 230 230 230
-13.764923 -44.734528 -18.124162 230 230 230
-13.877861 -44.860871 -18.318749 230 230 230
-13.988044 -44.995461 -18.525514 230 230 230
-14.097228 -45.132608 -18.735536 230 230 230
-14.194824 -45.064309 -18.784585 230 230 230
-14.304717 -45.197075 -18.985145 230 230 230
-14.417274 -45.319335 -19.166849 230 230 230
-14.530968 -45.436721 -19.339422 230 230 230
-14.644739 -45.553026 -19.509251 230 230 230
-14.757703 -45.671141 -19.680851 230 230 230
-14.868167 -45.795936 -19.860830 230 230 230
-14.962943 -45.725535 -19.890037 230 230 230
-15.069377 -45.862520 -20.087883 230 230 230
-15.176597 -45.999290 -20.289062 230 230 230
-15.286703 -46.131555 -20.490683 230 230 230
-15.402730 -46.253287 -20.689135 230 230 230
-15.521667 -46.370442 -20.887920 230 230 230
-15.641740 -46.486629 -21.089408 230 230 230
-15.761708 -46.604589 -21.295901 230 230 230
-15.879859 -46.728736 -21.512520 230 230 230
-15.983586 -46.656893 -21.581606 230 230 230
-16.097300 -46.792991 -21.813310 230 230 230
-16.209414 -46.931248 -22.043968 230 230 230
-16.319531 -47.070029 -22.266710 230 230 230
-16.413634 -47.003177 -22.304878 230 230 230
-16.519978 -47.140642 -22.505677 230 230 230
-16.626523 -47.277469 -22.705526 230 230 230
-16.734611 -47.413477 -22.910252 230 230 230
-16.846460 -47.548539 -23.129951 230 230 230
-16.961310 -47.681655 -23.358147 230 230 230
-17.066455 -47.609345 -23.432587 230 230 230
-17.185415 -47.735250 -23.659357 230 230 230
-17.307701 -47.850713 -23.871500 230 230 230
-17.432595 -47.957277 -24.070111 230 230 230
-17.557782 -48.062497 -24.266334 230 230 230
-17.681659 -48.171169 -24.466663 230 230 230
-17.802129 -48.289399 -24.679195 230 230 230
-17.915126 -48.429044 -24.919779 230 230 230
-18.008466 -48.388477 -25.034695 230 230 230
-18.115200 -48.544849 -25.294623 230 230 230
-18.206687 -48.506453 -25.405575 230 230 230
-8.206568 -19.638100 -18.104523 230 230 230
-8.342075 -19.669028 -18.558005 230 230 230
-8.480495 -19.704806 -19.033884 230 230 230
-8.611486 -19.750297 -19.510079 230 230 230
-8.715973 -19.867003 -19.611835 230 230 230
-8.820148 -19.904863 -19.985211 230 230 230
-9.043382 -19.640507 -19.966543 230 230 230
-9.181071 -19.652114 -20.376320 230 230 230
-9.301914 -19.745665 -20.475064 230 230 230
-9.440123 -19.757806 -20.887822 230 230 230
-9.578364 -19.770351 -21.301433 230 230 230
-9.592904 -19.693357 -21.616067 230 230 230
-9.730993 -19.706298 -22.029524 230 230 230
-9.869852 -19.717819 -22.441742 230 230 230
-9.883000 -19.642958 -22.756055 230 230 230
-10.022763 -19.652273 -23.165149 230 230 230
-10.163613 -19.659094 -23.571327 230 230 230
-10.305569 -19.663195 -23.974061 230 230 230
-10.448634 -19.664409 -24.372916 230 230 230
-10.592792 -19.662629 -24.767544 230 230 230
-10.738016 -19.657796 -25.157692 230 230 230
-10.884269 -19.649900 -25.543188 230 230 230
-11.031505 -19.638967 -25.923939 230 230 230
-11.179673 -19.625057 -26.299919 230 230 230
-11.328718 -19.608256 -26.671160 230 230 230
-11.478584 -19.588670 -27.037739 230 230 230
-11.629213 -19.566422 -27.399774 230 230 230
-11.780545 -19.541644 -27.757414 230 230 230
-11.932525 -19.514477 -28.110831 230 230 230
-12.085095 -19.485068 -28.460216 230 230 230
-12.238202 -19.453565 -28.805775 230 230 230
-12.257227 -19.354633 -29.073362 230 230 230
-12.412997 -19.359448 -29.531541 230 230 230
-12.757346 -19.309005 -30.580320 230 230 230
-13.463063 -18.823157 -32.557008 230 230 230
-13.634067 -18.786222 -32.978001 230 230 230
-13.547445 -18.913357 -33.440656 230 230 230
-13.723285 -18.862706 -33.823554 230 230 230
-13.732638 -18.781214 -34.104481 230 230 230
-13.909663 -18.727028 -34.482063 230 230 230
-13.779550 -19.032689 -35.247167 230 230 230
-13.936787 -19.039490 -35.718553 230 230 230
-13.953502 -18.921220 -35.920434 230 230 230
-14.090985 -18.986169 -36.479953 230 230 230
-14.090131 -18.920475 -36.764550 230 230 230
-14.108984 -18.795635 -36.956022 230 230 230
-14.308968 -18.670676 -37.222905 230 230 230
-14.358936 -18.448721 -37.262706 230 230 230
-14.380091 -18.316758 -37.442896 230 230 230
-14.371130 -18.353963 -37.973648 230 230 230
-14.582875 -17.957658 -37.567286 230 230 230
-14.542349 -17.964328 -37.908850 230 230 230
-14.567385 -17.819128 -38.067000 230 230 230
-14.592474 -17.647816 -38.168855 230 230 230
-14.774512 -17.569702 -38.497998 230 230 230
-14.910724 -17.028057 -38.003426 230 230 230
-14.939983 -16.463089 -37.067766 230 230 230
-15.104740 -16.375236 -37.322938 230 230 230
-15.132808 -16.219716 -37.463507 230 230 230
-15.137687 -16.117236 -37.671027 230 230 230
-15.325457 -16.004094 -37.927499 230 230 230
-15.314334 -15.958862 -38.227767 230 230 230
-15.554210 -15.398676 -37.494969 230 230 230
-15.801107 -14.977199 -37.148429 230 230 230
-15.831894 -14.812979 -37.274412 230 230 230
-15.998614 -14.735469 -37.559583 230 230 230
-16.190301 -14.597773 -37.764404 230 230 230
-16.341844 -14.570114 -38.125489 230 230 230
-16.476897 -14.577677 -38.524056 230 230 230
-16.511491 -14.402190 -38.632711 230 230 230
-16.761935 -13.896438 -38.054183 230 230 230
-16.980555 -13.393101 -37.398516 230 230 230
-17.174687 -13.235999 -37.559644 230 230 230
-17.121898 -13.505156 -38.527426 230 230 230
-17.289610 -13.546205 -39.125941 230 230 230
-17.483372 -13.391693 -39.292419 230 230 230
-17.696692 -13.118900 -39.210356 230 230 230
-17.734490 -12.929070 -39.291456 230 230 230
-17.936631 -12.795455 -39.535258 230 230 230
-18.099676 -12.714852 -39.801540 230 230 230
-18.138490 -12.517250 -39.865549 230 230 230
-18.342673 -12.299593 -39.901043 230 230 230
-18.381963 -12.100457 -39.962423 230 230 230
-18.617945 -11.741665 -39.733312 230 230 230
-18.657582 -11.540873 -39.791378 230 230 230
-18.820970 -11.195877 -39.367496 230 230 230
-18.850477 -10.861855 -39.034402 230 230 230
-18.995219 -11.040073 -39.842988 230 230 230
-19.191524 -10.854459 -39.934808 230 230 230
-19.232973 -10.640869 -39.965522 230 230 230
-19.397126 -10.563613 -40.236154 230 230 230
-19.301148 -10.827823 -41.033673 230 230 230
-19.344759 -10.603846 -41.044696 230 230 230
-19.388393 -10.379315 -41.054316 230 230 230
-19.583445 -10.192015 -41.137421 230 230 230
-19.627102 -9.966227 -41.143795 230 230 230
-19.670776 -9.739872 -41.148718 230 230 230
-19.865809 -9.550540 -41.226444 230 230 230
-19.909497 -9.322948 -41.228153 230 230 230
-19.953198 -9.094783 -41.228384 230 230 230
-19.996909 -8.866040 -41.227124 230 230 230
-20.040631 -8.636716 -41.224358 230 230 230
-20.084360 -8.406807 -41.220077 230 230 230
-20.279340 -8.213783 -41.288004 230 230 230
-20.323067 -7.982704 -41.280650 230 230 230
-20.518008 -7.788714 -41.345960 230 230 230
-20.561728 -7.556525 -41.335683 230 230 230
-20.756629 -7.361695 -41.398705 230 230 230
-20.800339 -7.128464 -41.385674 230 230 230
-20.995198 -6.932919 -41.446735 230 230 230
-21.038895 -6.698718 -41.431136 230 230 230
-21.233711 -6.502583 -41.490559 230 230 230
-21.428500 -6.306331 -41.549614 230 230 230
-21.472167 -6.070883 -41.530686 230 230 230
-21.666914 -5.874225 -41.588586 230 230 230
-21.861634 -5.677546 -41.646370 230 230 230
-21.905269 -5.441057 -41.624646 230 230 230
-22.099948 -5.244135 -41.681703 230 230 230
-22.143564 -5.007005 -41.658261 230 230 230
-22.338203 -4.809936 -41.714841 230 230 230
-22.532817 -4.612970 -41.771631 230 230 230
-22.727407 -4.416125 -41.828681 230 230 230
-22.921974 -4.219416 -41.886034 230 230 230
-23.116519 -4.022860 -41.943728 230 230 230
-23.160057 -3.784633 -41.917242 230 230 230
-23.354566 -3.588152 -41.975052 230 230 230
-23.549054 -3.391863 -42.033309 230 230 230
-23.743522 -3.195772 -42.092035 230 230 230
-23.937970 -2.999887 -42.151249 230 230 230
-24.132399 -2.804214 -42.210968 230 230 230
-24.326809 -2.608757 -42.271206 230 230 230
-24.370261 -2.370025 -42.243200 230 230 230
-24.564641 -2.174790 -42.303942 230 230 230
-24.759004 -1.979786 -42.365246 230 230 230
-24.953350 -1.785017 -42.427117 230 230 230
-25.147680 -1.590480 -42.489556 230 230 230
-25.341995 -1.396178 -42.552566 230 230 230
-25.385382 -1.157406 -42.524297 230 230 230
-25.579670 -0.963385 -42.587975 230 230 230
-25.773944 -0.769602 -42.652235 230 230 230
-25.968204 -0.576055 -42.717075 230 230 230
-26.162450 -0.382742 -42.782489 230 230 230
-26.205789 -0.144096 -42.754432 230 230 230
-26.400012 0.048914 -42.820577 230 230 230
-26.594222 0.241693 -42.887295 230 230 230
-26.788420 0.434242 -42.954576 230 230 230
-26.982606 0.626566 -43.022415 230 230 230
-27.176781 0.818668 -43.090804 230 230 230
-27.370944 1.010550 -43.159734 230 230 230
-27.565097 1.202217 -43.229197 230 230 230
-27.759238 1.393672 -43.299185 230 230 230
-27.953370 1.584918 -43.369690 230 230 230
-28.147491 1.775959 -43.440703 230 230 230
-28.341603 1.966799 -43.512215 230 230 230
-28.535705 2.157440 -43.584218 230 230 230
-28.729798 2.347888 -43.656703 230 230 230
-28.880660 2.300644 -43.755029 230 230 230
-29.074742 2.490800 -43.828245 230 230 230
-29.268815 2.680771 -43.901917 230 230 230
-29.419674 2.633342 -44.000714 230 230 230
-29.613737 2.823039 -44.075073 230 230 230
-29.807792 3.012562 -44.149865 230 230 230
-29.958648 2.964962 -44.249097 230 230 230
-30.152693 3.154227 -44.324536 230 230 230
-30.303547 3.106553 -44.423956 230 230 230
-30.497583 3.295568 -44.500019 230 230 230
-30.691612 3.484423 -44.576479 230 230 230
-30.842463 3.436597 -44.676286 230 230 230
-31.036483 3.625217 -44.753336 230 230 230
-31.187333 3.577325 -44.853309 230 230 230
-31.381344 3.765718 -44.930928 230 230 230
-31.532194 3.717762 -45.031061 230 230 230
-31.726197 3.905935 -45.109230 230 230 230
-31.877045 3.857918 -45.209518 230 230 230
-32.027893 3.809913 -45.309776 230 230 230
-32.221887 3.997803 -45.388657 230 230 230
-32.372734 3.949739 -45.489064 230 230 230
-32.523581 3.901685 -45.589444 230 230 230
-32.717566 4.089304 -45.669006 230 230 230
-32.868412 4.041193 -45.769530 230 230 230
-33.062389 4.228617 -45.849580 230 230 230
-33.213235 4.180451 -45.950244 230 230 230
-33.407204 4.367687 -46.030767 230 230 230
-33.558049 4.319467 -46.131566 230 230 230
-33.752011 4.506519 -46.212547 230 230 230
-33.945968 4.693453 -46.293822 230 230 230
-34.139919 4.880270 -46.375385 230 230 230
-34.333865 5.066972 -46.457233 230 230 230
-34.527805 5.253560 -46.539362 230 230 230
-34.721740 5.440038 -46.621766 230 230 230
-34.764833 5.675021 -46.602635 230 230 230
-34.958758 5.861331 -46.685450 230 230 230
-35.152679 6.047534 -46.768531 230 230 230
-35.346595 6.233632 -46.851875 230 230 230
-35.540505 6.419625 -46.935478 230 230 230
-35.734412 6.605515 -47.019335 230 230 230
-35.626651 6.889140 -46.898280 230 230 230
5.513290 27.423261 -1.789130 230 230 230
5.089417 28.095168 -1.271957 230 230 230
5.115491 28.347425 -1.029762 230 230 230
5.141556 28.599788 -0.787412 230 230 230
4.893795 28.835636 -0.919223 230 230 230
4.606195 29.010151 -1.270145 230 230 230
4.212150 28.926549 -2.558884 230 230 230
4.040369 29.146283 -2.493513 230 230 230
3.736694 29.218992 -3.145078 230 230 230
3.376684 29.708264 -2.931958 230 230 230
3.201559 29.930516 -2.869754 230 230 230
3.026508 30.152641 -2.807588 230 230 230
2.677527 30.782036 -2.205611 230 230 230
2.247751 31.309530 -2.464919 230 230 230
2.069608 31.534790 -2.404628 230 230 230
1.769810 31.993954 -2.116833 230 230 230
1.591400 32.219658 -2.055460 230 230 230
0.881323 32.567732 -2.912316 230 230 230
0.699510 32.795185 -2.857315 230 230 230
0.515727 32.976037 -2.968747 230 230 230
0.322366 32.944367 -3.130766 230 230 230
0.038284 32.885767 -4.109922 230 230 230
-0.270118 32.667585 -5.121762 230 230 230
-0.463441 32.635712 -5.284617 230 230 230
-0.646793 32.855941 -5.251996 230 230 230
-1.031165 32.290451 -7.147253 230 230 230
-1.349110 32.126180 -7.925416 230 230 230
-1.541754 32.094480 -8.086551 230 230 230
-1.780181 31.978566 -8.619759 230 230 230
-2.171668 32.441103 -8.270410 230 230 230
-2.359442 32.660688 -8.251804 230 230 230
-2.626403 32.430072 -9.074587 230 230 230
-2.818456 32.399635 -9.231683 230 230 230
-3.063590 32.382710 -9.808300 230 230 230
-3.255363 32.352796 -9.963933 230 230 230
-3.681348 32.504933 -10.429796 230 230 230
-3.892748 32.479190 -10.580136 230 230 230
-4.084015 32.450047 -10.732974 230 230 230
-4.336562 32.388279 -11.198816 230 230 230
-4.526758 32.606066 -11.190095 230 230 230
-4.850392 32.305420 -12.315197 230 230 230
-5.041026 32.276735 -12.465390 230 230 230
-5.296990 32.109528 -13.080004 230 230 230
-5.487219 32.081214 -13.228554 230 230 230
-5.812468 32.352969 -13.515636 230 230 230
-6.002493 32.324559 -13.664026 230 230 230
-6.263460 32.287417 -13.944628 230 230 230
-6.498674 31.999531 -14.824586 230 230 230
-6.688016 31.971389 -14.971276 230 230 230
-7.052623 31.950335 -15.644145 230 230 230
-7.241697 31.922216 -15.790135 230 230 230
-7.489054 31.787370 -16.284457 230 230 230
-7.677693 31.759698 -16.428541 230 230 230
-8.092687 31.858382 -16.956288 230 230 230
-8.308732 31.641509 -17.577354 230 230 230
-8.496869 31.614341 -17.719269 230 230 230
-8.959918 31.519528 -18.987562 230 230 230
-9.147136 31.490521 -19.131387 230 230 230
-9.388046 31.538525 -19.231767 230 230 230
-9.574919 31.509536 -19.374831 230 230 230
-9.881182 31.285474 -19.908455 230 230 230
-10.114952 31.332473 -20.036153 230 230 230
-10.300871 31.302780 -20.178113 230 230 230
-12.231664 30.290507 -26.727613 230 230 230
-14.177611 31.444033 -28.371005 230 230 230
-14.328692 31.395835 -28.472470 230 230 230
-14.479774 31.347624 -28.573974 230 230 230
-14.587857 31.065651 -28.691638 230 230 230
-14.738943 31.017434 -28.793170 230 230 230
-14.890031 30.969201 -28.894750 230 230 230
-15.041119 30.920949 -28.996381 230 230 230
-15.149213 30.638974 -29.114088 230 230 230
-15.300306 30.590707 -29.215772 230 230 230
-15.451399 30.542419 -29.317516 230 230 230
-15.602493 30.494107 -29.419322 230 230 230
-15.753588 30.445772 -29.521194 230 230 230
-15.904684 30.397411 -29.623135 230 230 230
-16.012794 30.115409 -29.740965 230 230 230
-16.163892 30.067017 -29.842997 230 230 230
-16.314991 30.018596 -29.945106 230 230 230
-16.466090 29.970145 -30.047294 230 230 230
-16.617189 29.921664 -30.149565 230 230 230
-16.811264 30.106654 -30.236359 230 230 230
-17.005332 30.291520 -30.323459 230 230 230
-17.199395 30.476264 -30.410859 230 230 230
-17.242360 30.709583 -30.395751 230 230 230
-17.436413 30.894142 -30.483607 230 230 230
-17.587501 30.845394 -30.586543 230 230 230
-17.738589 30.796611 -30.689568 230 230 230
-17.889677 30.747793 -30.792685 230 230 230
-18.040765 30.698939 -30.895894 230 230 230
-18.191852 30.650049 -30.999199 230 230 230
-18.299988 30.367971 -31.117313 230 230 230
-18.451076 30.319021 -31.220776 230 230 230
-18.602163 30.270031 -31.324340 230 230 230
-18.710303 29.987854 -31.442730 230 230 230
-18.861390 29.938799 -31.546467 230 230 230
-19.012476 29.889702 -31.650310 230 230 230
-19.120620 29.607412 -31.769007 230 230 230
-19.228765 29.325059 -31.887870 230 230 230
-19.336911 29.042643 -32.006906 230 230 230
-19.445058 28.760159 -32.126122 230 230 230
-19.402117 28.526861 -32.141252 230 230 230
-19.510265 28.244271 -32.260749 230 230 230
-19.467323 28.010889 -32.276095 230 230 230
-19.424378 27.777459 -32.291563 230 230 230
-19.381433 27.543980 -32.307154 230 230 230
-19.338485 27.310451 -32.322871 230 230 230
-19.295536 27.076871 -32.338715 230 230 230
-19.252585 26.843240 -32.354688 230 230 230
-19.209633 26.609557 -32.370792 230 230 230
-19.166679 26.375822 -32.387029 230 230 230
-19.123723 26.142032 -32.403402 230 230 230
-19.080765 25.908188 -32.419911 230 230 230
-18.886690 25.723405 -32.332574 230 230 230
-18.843727 25.489437 -32.349389 230 230 230
-18.800762 25.255412 -32.366349 230 230 230
-18.757794 25.021329 -32.383454 230 230 230
-18.865950 24.738122 -32.504594 230 230 230
-18.822981 24.503933 -32.521974 230 230 230
-18.780011 24.269683 -32.539507 230 230 230
-18.888168 23.986280 -32.661163 230 230 230
-18.845196 23.751918 -32.678987 230 230 230
-18.802223 23.517491 -32.696972 230 230 230
-18.910382 23.233878 -32.819186 230 230 230
-18.867407 22.999332 -32.837481 230 230 230
-18.824429 22.764718 -32.855945 230 230 230
-18.781450 22.530036 -32.874582 230 230 230
-18.889612 22.246136 -32.997556 230 230 230
-18.846631 22.011324 -33.016530 230 230 230
-18.803648 21.776439 -33.035685 230 230 230
-18.911811 21.492287 -33.159326 230 230 230
-18.868826 21.257263 -33.178842 230 230 230
-18.825840 21.022163 -33.198551 230 230 230
-18.782851 20.786985 -33.218455 230 230 230
-18.739860 20.551728 -33.238560 230 230 230
-18.696867 20.316391 -33.258869 230 230 230
-18.653871 20.080971 -33.279386 230 230 230
-18.610874 19.845468 -33.300115 230 230 230
-18.567873 19.609879 -33.321060 230 230 230
-18.524871 19.374203 -33.342226 230 230 230
-18.481866 19.138439 -33.363617 230 230 230
-18.438859 18.902583 -33.385238 230 230 230
-18.395849 18.666635 -33.407094 230 230 230
-18.352836 18.430592 -33.429190 230 230 230
-18.309822 18.194452 -33.451530 230 230 230
-18.417993 17.909036 -33.578502 230 230 230
-18.374976 17.672702 -33.601346 230 230 230
-18.331956 17.436263 -33.624453 230 230 230
-18.288934 17.199720 -33.647827 230 230 230
-18.245909 16.963068 -33.671476 230 230 230
-18.202881 16.726305 -33.695406 230 230 230
-18.159851 16.489429 -33.719623 230 230 230
-18.268025 16.203171 -33.848807 230 230 230
-18.224992 15.966060 -33.873631 230 230 230
-18.181956 15.728826 -33.898765 230 230 230
-18.138917 15.491468 -33.924218 230 230 230
-18.095875 15.253981 -33.949997 230 230 230
-18.052830 15.016362 -33.976110 230 230 230
-18.009782 14.778608 -34.002567 230 230 230
-17.966731 14.540715 -34.029377 230 230 230
-17.923676 14.302680 -34.056548 230 230 230
-17.880618 14.064499 -34.084092 230 230 230
-17.837557 13.826166 -34.112019 230 230 230
-17.794492 13.587680 -34.140338 230 230 230
-17.751424 13.349034 -34.169063 230 230 230
-17.708352 13.110224 -34.198203 230 230 230
-17.665277 12.871245 -34.227773 230 230 230
-17.622198 12.632093 -34.257785 230 230 230
-17.579114 12.392762 -34.288252 230 230 230
-17.536027 12.153246 -34.319188 230 230 230
-17.492936 11.913539 -34.350610 230 230 230
-17.449841 11.673636 -34.382532 230 230 230
-17.406742 11.433530 -34.414972 230 230 230
-17.363638 11.193213 -34.447945 230 230 230
-17.320530 10.952680 -34.481472 230 230 230
-17.277418 10.711921 -34.515572 230 230 230
-17.082997 10.520437 -34.444665 230 230 230
-17.039871 10.279232 -34.479886 230 230 230
-16.996739 10.037778 -34.515738 230 230 230
-16.953603 9.796068 -34.552245 230 230 230
-16.910461 9.554090 -34.589434 230 230 230
-16.867314 9.311834 -34.627330 230 230 230
-16.824162 9.069288 -34.665962 230 230 230
-16.781004 8.826442 -34.705362 230 230 230
-16.737840 8.583282 -34.745561 230 230 230
-16.543310 8.389409 -34.680544 230 230 230
-16.500128 8.145628 -34.722304 230 230 230
-16.456941 7.901493 -34.764966 230 230 230
-16.413747 7.656989 -34.808571 230 230 230
-16.370545 7.412096 -34.853165 230 230 230
-16.327337 7.166796 -34.898795 230 230 230
-16.132711 6.970759 -34.839117 230 230 230
-16.089482 6.724653 -34.886781 230 230 230
-16.046245 6.478078 -34.935638 230 230 230
-16.003000 6.231009 -34.985755 230 230 230
-15.959746 5.983417 -35.037201 230 230 230
-15.916484 5.735273 -35.090057 230 230 230
-15.721742 5.536412 -35.037369 230 230 230
-15.678454 5.287162 -35.093016 230 230 230
-15.635155 5.037257 -35.150334 230 230 230
-15.591846 4.786651 -35.209436 230 230 230
-15.548526 4.535296 -35.270447 230 230 230
-15.505195 4.283138 -35.333504 230 230 230
-15.310311 4.080345 -35.290587 230 230 230
-15.266946 3.826541 -35.357806 230 230 230
-15.223568 3.571738 -35.427573 230 230 230
-15.180175 3.315849 -35.500106 230 230 230
-15.136767 3.058779 -35.575648 230 230 230
-15.093343 2.800421 -35.654471 230 230 230
-14.898278 2.591451 -35.626986 230 230 230
-14.854808 2.330277 -35.712946 230 230 230
-14.811319 2.067376 -35.803304 230 230 230
-14.767807 1.802574 -35.898501 230 230 230
-14.572570 1.586538 -35.888729 230 230 230
-14.377238 1.367889 -35.885420 230 230 230
-14.181797 1.146073 -35.889960 230 230 230
-14.029907 1.196148 -35.781234 230 230 230
-13.834258 0.969755 -35.797000 230 230 230
-13.638454 0.737491 -35.827417 230 230 230
10.395765 1.837532 2.563723 230 230 230
10.248075 1.740106 2.401766 230 230 230
10.110791 1.625690 2.656143 230 230 230
9.956223 1.551868 2.527136 230 230 230
9.798161 1.489535 2.413027 230 230 230
9.642688 1.419960 2.710515 230 230 230
9.473507 1.332683 2.501473 230 230 230
9.296881 1.214161 2.615376 230 230 230
9.108728 1.065602 2.621306 230 230 230
8.918333 0.911714 2.607332 230 230 230
8.728582 0.759264 2.598696 230 230 230
8.538883 0.607850 2.592502 230 230 230
8.351419 0.453598 2.587000 230 230 230
8.171018 0.289750 2.582492 230 230 230
7.994715 0.119703 2.577025 230 230 230
7.820275 -0.053396 2.570463 230 230 230
7.635953 -0.227681 2.528633 230 230 230
7.436108 -0.398814 2.442988 230 230 230
7.410676 -0.442488 2.682369 230 230 230
7.216754 -0.604184 2.635286 230 230 230
7.025777 -0.758729 2.615808 230 230 230
6.837127 -0.910576 2.610946 230 230 230
6.652982 -1.068013 2.608077 230 230 230
6.473218 -1.236322 2.593107 230 230 230
6.294648 -1.426779 2.525301 230 230 230
6.265019 -1.493447 2.707069 230 230 230
6.081135 -1.670397 2.654417 230 230 230
5.892662 -1.823650 2.645887 230 230 230
5.703435 -1.973437 2.643389 230 230 230
5.513310 -2.129265 2.622016 230 230 230
5.320191 -2.303614 2.542172 230 230 230
5.281615 -2.356129 2.727698 230 230 230
5.109045 -2.543386 2.689019 230 230 230
4.941732 -2.725893 2.681427 230 230 230
4.759012 -2.885704 2.676083 230 230 230
4.568529 -3.045861 2.641713 230 230 230
4.527241 -3.093136 2.830891 230 230 230
4.337903 -3.281666 2.727967 230 230 230
4.170886 -3.464133 2.720611 230 230 230
3.998569 -3.652580 2.678891 230 230 230
3.959599 -3.700573 2.874601 230 230 230
3.770817 -3.882507 2.790209 230 230 230
3.594417 -4.058450 2.765302 230 230 230
3.419457 -4.245688 2.716637 230 230 230
3.389661 -4.300227 2.927979 230 230 230
3.212216 -4.516684 2.796293 230 230 230
3.037211 -4.732340 2.675115 230 230 230
3.010281 -4.783501 2.905072 230 230 230
2.833344 -4.962351 2.870234 230 230 230
2.654530 -5.145417 2.817884 230 230 230
2.624696 -5.196735 3.037200 230 230 230
2.444188 -5.410234 2.901518 230 230 230
2.264204 -5.626117 2.761435 230 230 230
2.234163 -5.681938 2.968746 230 230 230
2.049408 -5.888324 2.835787 230 230 230
2.018092 -5.936028 3.059251 230 230 230
1.847134 -6.124808 3.019360 230 230 230
1.675209 -6.310218 2.984432 230 230 230
1.641620 -6.354121 3.209637 230 230 230
1.453232 -6.554883 3.077691 230 230 230
1.277335 -6.775878 2.938112 230 230 230
1.254777 -6.843053 3.143204 230 230 230
1.078099 -7.061738 3.006555 230 230 230
1.052516 -7.120947 3.221307 230 230 230
0.876911 -7.312834 3.156174 230 230 230
0.702511 -7.496133 3.116783 230 230 230
0.679201 -7.553341 3.344784 230 230 230
0.502170 -7.760632 3.235051 230 230 230
0.327888 -7.975898 3.114387 230 230 230
0.307347 -8.048379 3.313510 230 230 230
0.127024 -8.229781 3.257572 230 230 230
-0.054747 -8.396829 3.232767 230 230 230
-0.223974 -8.603708 3.150286 230 230 230
-0.239130 -8.687534 3.339647 230 230 230
-0.407954 -8.881565 3.291100 230 230 230
-0.579620 -9.063148 3.264010 230 230 230
-0.751279 -9.265916 3.182664 230 230 230
-0.771945 -9.345908 3.362689 230 230 230
-0.937825 -9.542276 3.317688 230 230 230
-1.103895 -9.732643 3.287066 230 230 230
-1.129584 -9.806284 3.465937 230 230 230
-1.305310 -10.002798 3.385455 230 230 230
-1.465966 -10.202333 3.349876 230 230 230
-1.624761 -10.401676 3.321047 230 230 230
-1.798681 -10.596978 3.249122 230 230 230
-1.824795 -10.677456 3.409249 230 230 230
-1.984062 -10.877110 3.377433 230 230 230
-2.143965 -11.075227 3.347088 230 230 230
-2.320269 -11.265638 3.278560 230 230 230
-2.347450 -11.347128 3.432453 230 230 230
-2.520953 -11.524523 3.406974 230 230 230
-2.689873 -11.710757 3.374742 230 230 230
-2.706167 -11.809960 3.521513 230 230 230
-2.872285 -12.017758 3.443215 230 230 230
-2.895862 -12.109599 3.583251 230 230 230
-3.073208 -12.303966 3.499926 230 230 230
-3.241244 -12.506999 3.426575 230 230 230
-3.258059 -12.615702 3.547122 230 230 230
-3.423867 -12.798747 3.532947 230 230 230
-3.590947 -12.979091 3.521072 230 230 230
-3.755801 -13.161620 3.511377 230 230 230
-3.775359 -13.290219 3.570488 230 230 230
-3.940939 -13.472591 3.558164 230 230 230
-4.105143 -13.657169 3.544680 230 230 230
-4.264412 -13.848505 3.530859 230 230 230
-4.421482 -14.041591 3.520183 230 230 230
-4.443388 -14.169684 3.572011 230 230 230
-4.603595 -14.356969 3.565161 230 230 230
-4.772390 -14.534336 3.553232 230 230 230
-4.937288 -14.716523 3.542401 230 230 230
-5.091776 -14.911528 3.535012 230 230 230
-5.116298 -15.037241 3.583409 230 230 230
-5.269022 -15.236002 3.572028 230 230 230
-5.429194 -15.425126 3.559036 230 230 230
-5.597834 -15.602651 3.546007 230 230 230
-5.758491 -15.786001 3.547358 230 230 230
-5.786889 -15.912276 3.577874 230 230 230
-5.946844 -16.096467 3.579218 230 230 230
-6.116319 -16.272319 3.566977 230 230 230
-6.285136 -16.449835 3.552259 230 230 230
-6.450446 -16.632054 3.537472 230 230 230
-6.610453 -16.821431 3.522566 230 230 230
-6.766469 -17.016198 3.507499 230 230 230
-6.919359 -17.215183 3.492259 230 230 230
-7.076461 -17.408384 3.476937 230 230 230
-7.244500 -17.586384 3.462298 230 230 230
-7.412308 -17.764608 3.447655 230 230 230
-7.574749 -17.950175 3.432612 230 230 230
-7.735600 -18.137850 3.417448 230 230 230
-7.897200 -18.324434 3.402239 230 230 230
-8.063808 -18.504109 3.387088 230 230 230
-8.234950 -18.677507 3.372030 230 230 230
-8.409151 -18.847030 3.355996 230 230 230
-8.582435 -19.017796 3.339721 230 230 230
-8.749848 -19.196689 3.322747 230 230 230
-8.920965 -19.360739 3.332192 230 230 230
-9.056155 -19.437342 3.235969 230 230 230
-9.234215 -19.570733 3.302759 230 230 230
-9.359506 -19.654128 3.224376 230 230 230
-9.520250 -19.806236 3.303555 230 230 230
-9.637230 -19.884182 3.269883 230 230 230
-9.751618 -19.962023 3.245788 230 230 230
-9.864191 -20.049387 3.202380 230 230 230
-9.975431 -20.148767 3.131143 230 230 230
-10.124928 -20.323934 3.187298 230 230 230
-10.234689 -20.420770 3.127833 230 230 230
-10.344178 -20.515259 3.075717 230 230 230
-10.453914 -20.607535 3.028846 230 230 230
-10.564257 -20.698037 2.984862 230 230 230
-10.675852 -20.787589 2.939446 230 230 230
-10.831231 -20.955458 2.994727 230 230 230
-10.945274 -21.046283 2.937702 230 230 230
-11.056925 -21.138020 2.886205 230 230 230
-11.167721 -21.227776 2.843121 230 230 230
-11.279476 -21.311838 2.812556 230 230 230
-11.392919 -21.387350 2.800089 230 230 230
-11.506733 -21.452385 2.816327 230 230 230
-11.578732 -21.388731 2.870268 230 230 230
-11.650604 -21.322419 2.933329 230 230 230
33.743059 27.192108 27.744377 230 230 230
33.681855 27.097336 27.473816 230 230 230
33.770128 27.192045 27.532502 230 230 230
33.855090 27.286540 27.582526 230 230 230
33.787205 27.193005 27.299339 230 230 230
33.718639 27.106149 27.032972 230 230 230
33.641924 27.024568 26.758314 230 230 230
33.475570 26.845327 26.409636 230 230 230
33.371360 26.766815 26.066940 230 230 230
33.204099 26.580791 25.702069 230 230 230
33.108799 26.485258 25.348850 230 230 230
33.018475 26.381317 24.993902 230 230 230
32.861141 26.183812 24.634597 230 230 230
32.769067 26.083292 24.279633 230 230 230
32.671360 25.986432 23.912934 230 230 230
32.569182 25.877942 23.507032 230 230 230
32.628077 25.961787 23.464296 230 230 230
32.527715 25.857344 23.074161 230 230 230
32.428404 25.760948 22.705463 230 230 230
32.320218 25.660638 22.300566 230 230 230
32.371175 25.750756 22.247973 230 230 230
32.248507 25.647103 21.790577 230 230 230
32.291704 25.735863 21.710960 230 230 230
32.339262 25.820074 21.635788 230 230 230
32.228345 25.703188 21.188803 230 230 230
32.279709 25.788843 21.129504 230 230 230
32.150997 25.701340 20.689681 230 230 230
32.194535 25.799984 20.633901 230 230 230
32.247654 25.885501 20.580906 230 230 230
32.138218 25.777613 20.160873 230 230 230
32.023548 25.696002 19.783116 230 230 230
31.855669 25.519735 19.437155 230 230 230
31.755545 25.423828 19.076840 230 230 230
31.600032 25.227582 18.727667 230 230 230
31.493867 25.142049 18.369724 230 230 230
31.325300 24.965642 18.020447 230 230 230
31.215246 24.886722 17.663209 230 230 230
31.111943 24.797868 17.306050 230 230 230
30.949784 24.610253 16.952932 230 230 230
30.840928 24.531613 16.600874 230 230 230
30.671941 24.354888 16.249116 230 230 230
30.548230 24.300805 15.901283 230 230 230
30.373888 24.132571 15.548671 230 230 230
30.250471 24.076513 15.195523 230 230 230
30.133032 24.011534 14.843282 230 230 230
29.969285 23.826250 14.487567 230 230 230
29.855474 23.757144 14.139625 230 230 230
29.729286 23.708001 13.793979 230 230 230
29.556174 23.539321 13.441977 230 230 230
29.435710 23.481890 13.097286 230 230 230
29.268207 23.304204 12.744006 230 230 230
29.151399 23.242559 12.402292 230 230 230
28.985676 23.063384 12.051587 230 230 230
28.822327 22.882489 11.705376 230 230 230
28.660675 22.700324 11.362133 230 230 230
28.499833 22.517941 11.020771 230 230 230
28.339076 22.336021 10.679972 230 230 230
28.178436 22.154080 10.338996 230 230 230
28.018100 21.972128 9.998420 230 230 230
27.857380 21.789811 9.655402 230 230 230
27.694328 21.606602 9.303020 230 230 230
27.467952 21.301550 8.885465 230 230 230
27.298996 21.114461 8.506258 230 230 230
27.136033 20.922341 8.134677 230 230 230
26.975864 20.727629 7.765815 230 230 230
26.755841 20.412849 7.344816 230 230 230
26.588044 20.222191 6.959426 230 230 230
26.366956 19.898630 6.515549 230 230 230
26.154689 19.555995 6.058858 230 230 230
25.994723 19.348196 5.662003 230 230 230
25.771196 19.017240 5.192603 230 230 230
25.544769 18.693888 4.727843 230 230 230
25.318208 18.374697 4.268706 230 230 230
25.153600 18.180828 3.884145 230 230 230
24.934666 17.846552 3.417229 230 230 230
24.719708 17.501875 2.940322 230 230 230
24.506532 17.153419 2.460487 230 230 230
24.288192 16.816674 1.986269 230 230 230
24.064669 16.492444 1.519008 230 230 230
23.899273 16.310980 1.155554 230 230 230
23.675510 15.991149 0.693589 230 230 230
23.452760 15.666398 0.225051 230 230 230
23.231097 15.337119 -0.249170 230 230 230
23.009843 15.007842 -0.723227 230 230 230
22.788883 14.679151 -1.196435 230 230 230
22.568245 14.350976 -1.668875 230 230 230
22.347901 14.023253 -2.140712 230 230 230
22.127929 13.695866 -2.611973 230 230 230
21.908347 13.368749 -3.082726 230 230 230
21.689033 13.042563 -3.551997 230 230 230
21.469231 12.721345 -4.013606 230 230 230
21.247772 12.405938 -4.468746 230 230 230
21.023019 12.095710 -4.921233 230 230 230
20.952362 11.938759 -5.096341 230 230 230
20.724349 11.642562 -5.529814 230 230 230
20.497336 11.350320 -5.954365 230 230 230
20.428944 11.187447 -6.136741 230 230 230
20.209642 10.860852 -6.612010 230 230 230
19.985617 10.553480 -7.061607 230 230 230
19.916110 10.386532 -7.252735 230 230 230
19.686379 10.103902 -7.668523 230 230 230
19.615821 9.940624 -7.854335 230 230 230
19.385750 9.661322 -8.266493 230 230 230
19.318565 9.485713 -8.465644 230 230 230
19.086757 9.214525 -8.868779 230 230 230
19.020016 9.037372 -9.070345 230 230 230
18.790741 8.755818 -9.489087 230 230 230
18.729100 8.554691 -9.727139 230 230 230
18.505394 8.247554 -10.185008 230 230 230
18.440200 8.061898 -10.401102 230 230 230
18.207110 7.797961 -10.795662 230 230 230
18.135299 7.641874 -10.968452 230 230 230
17.895464 7.409020 -11.317265 230 230 230
17.827805 7.231359 -11.524316 230 230 230
17.764614 7.031889 -11.765024 230 230 230
17.538285 6.738125 -12.205598 230 230 230
17.472485 6.555470 -12.418430 230 230 230
17.240853 6.289467 -12.816042 230 230 230
17.170615 6.116027 -13.022035 230 230 230
17.100846 5.942344 -13.227451 230 230 230
16.873122 5.671512 -13.625735 230 230 230
16.648964 5.397118 -14.022497 230 230 230
16.597727 5.247465 -14.115181 230 230 230
16.358525 4.955322 -14.601522 230 230 230
16.112929 4.653536 -15.131717 230 230 230
16.067263 4.526196 -15.155184 230 230 230
15.828907 4.266800 -15.568228 230 230 230
15.598246 4.030515 -15.905556 230 230 230
15.374207 3.771025 -16.274626 230 230 230
15.152421 3.502908 -16.656694 230 230 230
14.927304 3.247770 -17.021157 230 230 230
14.701348 2.997473 -17.378281 230 230 230
14.475671 2.746245 -17.737480 230 230 230
14.247955 2.503939 -18.083800 230 230 230
14.017869 2.271061 -18.417156 230 230 230
13.791753 2.020143 -18.779717 230 230 230
13.571472 1.760185 -19.144777 230 230 230
13.355269 1.550082 -19.383398 230 230 230
13.157500 1.431130 -19.766855 230 230 230
12.951529 1.226355 -19.961769 230 230 230
12.762268 1.079241 -20.383486 230 230 230
12.568475 0.893223 -20.497021 230 230 230
12.384134 0.799037 -20.782182 230 230 230
12.206197 0.721615 -21.007507 230 230 230
-7.978121 -19.433079 -17.918214 230 230 230
-7.876641 -19.350402 -17.927252 230 230 230
-7.795588 -19.173500 -18.227784 230 230 230
-7.708525 -18.944056 -18.360455 230 230 230
-7.731243 -18.813924 -18.563123 230 230 230
-7.752068 -18.685286 -18.762798 230 230 230
-7.771313 -18.566301 -18.983224 230 230 230
-7.916567 -18.578508 -19.424658 230 230 230
-7.927212 -18.497018 -19.713873 230 230 230
-7.923763 -18.439271 -20.011747 230 230 230
-7.909255 -18.397895 -20.310574 230 230 230
-7.894755 -18.356550 -20.609117 230 230 230
-7.889365 -18.301362 -20.905121 230 230 230
-7.886895 -18.241927 -21.200594 230 230 230
-7.885239 -18.181392 -21.495899 230 230 230
-7.883630 -18.120886 -21.791127 230 230 230
-7.881946 -18.060588 -22.086288 230 230 230
-7.880205 -18.000471 -22.381377 230 230 230
-7.878451 -17.940471 -22.676393 230 230 230
-7.876690 -17.880590 -22.971361 230 230 230
-7.874890 -17.820911 -23.266383 230 230 230
-7.873064 -17.761389 -23.561387 230 230 230
-7.871098 -17.702262 -23.856569 230 230 230
-7.869498 -17.642167 -24.150219 230 230 230
-7.869062 -17.578988 -24.439710 230 230 230
-7.873829 -17.502834 -24.714091 230 230 230
-7.883369 -17.417370 -24.981735 230 230 230
-8.022519 -17.452164 -25.456958 230 230 230
-8.024710 -17.397199 -25.778379 230 230 230
-8.025170 -17.335068 -26.072774 230 230 230
-8.030694 -17.252689 -26.331546 230 230 230
-8.040541 -17.155053 -26.565453 230 230 230
-8.051134 -17.055121 -26.795764 230 230 230
-8.062390 -16.953266 -27.023178 230 230 230
-8.074836 -16.848308 -27.246587 230 230 230
-8.091783 -16.728383 -27.446752 230 230 230
-8.110758 -16.601246 -27.635039 230 230 230
-8.276852 -16.583186 -28.070812 230 230 230
-8.286713 -16.486320 -28.305140 230 230 230
-8.297026 -16.388461 -28.538109 230 230 230
-8.307665 -16.289741 -28.769731 230 230 230
-8.319209 -16.188140 -28.996816 230 230 230
-8.332612 -16.080506 -29.214563 230 230 230
-8.348831 -15.963780 -29.418551 230 230 230
-8.520773 -15.925013 -29.819539 230 230 230
-8.542205 -15.791283 -29.997210 230 230 230
-8.560496 -15.667995 -30.190573 230 230 230
-8.573221 -15.563146 -30.411880 230 230 230
-8.590179 -15.444509 -30.612122 230 230 230
-8.612458 -15.308495 -30.785859 230 230 230
-8.635807 -15.169060 -30.954342 230 230 230
-8.812082 -15.116242 -31.332406 230 230 230
-8.835575 -14.976528 -31.500227 230 230 230
-8.859219 -14.836530 -31.667517 230 230 230
-8.882846 -14.696909 -31.835479 230 230 230
-8.906113 -14.558852 -32.006109 230 230 230
-9.082204 -14.504905 -32.379371 230 230 230
-9.105965 -14.365746 -32.548368 230 230 230
-9.130430 -14.224072 -32.712955 230 230 230
-9.154909 -14.082577 -32.877850 230 230 230
-9.180044 -13.939516 -33.040825 230 230 230
-9.368018 -13.843543 -33.345656 230 230 230
-9.399617 -13.681751 -33.482548 230 230 230
-9.428287 -13.527599 -33.628434 230 230 230
-9.454981 -13.379516 -33.782817 230 230 230
-9.482540 -13.229518 -33.935084 230 230 230
-9.517922 -13.057177 -34.056772 230 230 230
-9.707008 -12.952451 -34.341382 230 230 230
-9.735929 -12.801585 -34.495584 230 230 230
-9.772418 -12.623903 -34.606545 230 230 230
-9.813835 -12.429077 -34.690110 230 230 230
-9.856297 -12.230796 -34.768157 230 230 230
-9.898374 -12.034302 -34.849255 230 230 230
-9.938354 -11.846269 -34.944697 230 230 230
-9.972441 -11.682677 -35.082487 230 230 230
-10.154128 -11.597898 -35.390496 230 230 230
-10.194785 -11.411781 -35.492568 230 230 230
-10.237296 -11.216832 -35.577960 230 230 230
-10.280185 -11.019127 -35.657266 230 230 230
-10.323051 -10.821904 -35.737504 230 230 230
-10.366251 -10.626166 -35.822502 230 230 230
-10.410052 -10.433132 -35.916336 230 230 230
-10.607801 -10.292417 -36.133409 230 230 230
-10.651779 -10.094526 -36.214684 230 230 230
-10.694906 -9.884205 -36.260383 230 230 230
-10.738400 -9.672381 -36.303131 230 230 230
-10.936887 -9.503175 -36.447264 230 230 230
-10.980398 -9.304218 -36.523175 230 230 230
-11.023672 -9.108592 -36.606741 230 230 230
-11.066880 -8.912871 -36.689610 230 230 230
-11.110183 -8.716281 -36.770301 230 230 230
-11.153669 -8.515977 -36.841709 230 230 230
-11.352657 -8.323904 -36.926579 230 230 230
-11.396332 -8.119451 -36.987377 230 230 230
-11.439880 -7.921283 -37.063938 230 230 230
-11.483385 -7.725269 -37.145686 230 230 230
-11.526936 -7.529142 -37.227082 230 230 230
-11.570721 -7.330209 -37.301805 230 230 230
-11.615197 -7.121255 -37.352820 230 230 230
-11.813369 -6.933641 -37.444463 230 230 230
-11.857707 -6.734327 -37.519425 230 230 230
-11.901756 -6.538957 -37.603334 230 230 230
-11.945642 -6.343958 -37.687408 230 230 230
-11.989532 -6.149142 -37.771728 230 230 230
-12.033485 -5.954295 -37.855943 230 230 230
-12.077551 -5.759914 -37.941498 230 230 230
-12.121949 -5.563477 -38.022664 230 230 230
-12.166817 -5.360948 -38.089547 230 230 230
-12.365003 -5.178832 -38.193292 230 230 230
-12.409772 -4.943505 -38.175377 230 230 230
-12.453627 -4.698147 -38.128613 230 230 230
-12.497051 -4.436252 -38.038062 230 230 230
-12.540328 -4.164468 -37.921732 230 230 230
-12.583869 -3.906649 -37.842044 230 230 230
-12.627419 -3.644584 -37.751650 230 230 230
-12.670640 -3.354208 -37.587985 230 230 230
-12.713922 -3.063831 -37.424607 230 230 230
-12.757469 -2.788343 -37.300195 230 230 230
-12.801317 -2.531297 -37.223811 230 230 230
-12.845410 -2.286596 -37.179691 230 230 230
-12.889628 -2.042952 -37.138625 230 230 230
-12.934141 -1.789691 -37.073899 230 230 230
-12.979123 -1.518019 -36.963602 230 230 230
-13.177354 -1.279777 -36.923059 230 230 230
-13.222498 -0.991195 -36.770282 230 230 230
-13.266608 -0.688775 -36.579662 230 230 230
-13.310562 -0.392924 -36.405483 230 230 230
-13.354627 -0.106288 -36.255227 230 230 230
-13.398593 0.192529 -36.074034 230 230 230
-13.442471 0.494785 -35.884085 230 230 230
-11.764727 -21.387341 2.950535 230 230 230
-11.879388 -21.464630 2.931038 230 230 230
-12.034853 -21.632814 2.985171 230 230 230
-12.150028 -21.717717 2.942660 230 230 230
-12.265527 -21.807372 2.885681 230 230 230
-12.421153 -21.977543 2.934304 230 230 230
-12.537054 -22.071026 2.865273 230 230 230
-12.650987 -22.164393 2.802950 230 230 230
-12.766974 -22.263236 2.718561 230 230 230
-12.781612 -23.163269 1.164255 230 230 230
-12.884930 -23.331793 0.924194 230 230 230
-12.993840 -23.451394 0.734814 230 230 230
-13.101804 -23.802811 0.395014 230 230 230
-13.187824 -24.159274 0.133396 230 230 230
-13.286113 -24.336395 -0.126222 230 230 230
-13.391372 -24.717066 -0.537510 230 230 230
-13.497995 -25.068700 -0.854811 230 230 230
-13.638467 -25.443489 -1.379979 230 230 230
-13.737983 -25.630092 -1.677181 230 230 230
-13.831447 -25.652326 -1.045923 230 230 230
-13.939779 -26.016993 -1.414072 230 230 230
-14.046490 -26.385137 -1.784232 230 230 230
-14.155363 -26.754752 -2.171298 230 230 230
-14.260388 -27.129317 -2.555712 230 230 230
-14.364606 -27.506792 -2.946400 230 230 230
-14.360827 -27.759599 -3.179402 230 230 230
-14.463256 -28.142656 -3.580814 230 230 230
-14.565057 -28.528117 -3.987660 230 230 230
-14.665078 -28.926993 -4.432065 230 230 230
-14.666584 -29.165471 -4.642322 230 230 230
-14.766743 -29.557094 -5.062905 230 230 230
-14.868084 -29.947775 -5.487604 230 230 230
-14.967500 -30.342596 -5.916212 230 230 230
-14.966970 -30.587138 -6.137467 230 230 230
-15.061300 -31.003900 -6.615654 230 230 230
-15.059853 -31.250829 -6.840857 230 230 230
-15.157923 -31.650782 -7.281363 230 230 230
-15.255870 -32.051702 -7.724922 230 230 230
-15.253340 -32.301464 -7.954955 230 230 230
-15.351612 -32.703849 -8.406503 230 230 230
-15.348341 -32.955368 -8.639173 230 230 230
-15.445825 -33.358889 -9.090442 230 230 230
-15.442026 -33.611724 -9.325346 230 230 230
-15.521152 -34.066780 -9.860470 230 230 230
-15.618632 -34.471535 -10.316881 230 230 230
-15.614288 -34.725751 -10.554368 230 230 230
-15.711932 -35.130697 -11.012852 230 230 230
-15.707328 -35.385491 -11.251416 230 230 230
-15.805252 -35.790311 -11.711492 230 230 230
-15.790383 -36.074633 -12.000280 230 230 230
-15.888683 -36.478897 -12.460978 230 230 230
-15.987411 -36.882600 -12.922300 230 230 230
-15.982734 -37.137309 -13.161273 230 230 230
-16.082058 -37.540027 -13.622862 230 230 230
-16.077459 -37.794382 -13.861454 230 230 230
-16.177074 -38.198481 -14.330551 230 230 230
-16.277797 -38.598657 -14.791483 230 230 230
-16.273634 -38.851668 -15.028357 230 230 230
-16.375211 -39.250157 -15.488482 230 230 230
-16.477439 -39.647456 -15.948228 230 230 230
-16.580345 -40.043488 -16.407461 230 230 230
-16.576889 -40.298796 -16.656269 230 230 230
-16.680898 -40.692315 -17.113148 230 230 230
-16.785655 -41.084366 -17.569186 230 230 230
-16.891182 -41.474878 -18.024254 230 230 230
-16.889262 -41.721562 -18.252945 230 230 230
-16.996019 -42.109354 -18.705633 230 230 230
-17.103613 -42.495412 -19.157029 230 230 230
-17.212064 -42.879670 -19.607001 230 230 230
-17.321788 -43.261916 -20.056670 230 230 230
-17.321973 -43.502724 -20.277510 230 230 230
-17.432770 -43.881667 -20.722302 230 230 230
-17.433882 -44.119850 -20.939491 230 230 230
-17.435386 -44.356725 -21.154496 230 230 230
-17.548380 -44.730456 -21.593720 230 230 230
-17.551004 -44.964168 -21.804307 230 230 230
-17.547080 -45.208477 -22.021553 230 230 230
-17.663138 -45.575187 -22.453240 230 230 230
-17.668176 -45.802405 -22.654831 230 230 230
-17.673874 -46.027517 -22.853021 230 230 230
-17.680301 -46.250309 -23.047469 230 230 230
-17.800007 -46.608044 -23.468813 230 230 230
-17.808280 -46.825583 -23.655830 230 230 230
-17.929488 -47.179540 -24.072393 230 230 230
-17.939645 -47.391530 -24.251195 230 230 230
-18.060717 -47.744790 -24.664449 230 230 230
-18.072473 -47.951811 -24.835138 230 230 230
-18.193690 -48.304654 -25.245899 230 230 230
33.743059 27.192108 27.744377 230 230 230
33.511983 26.904621 27.365451 230 230 230
33.283000 26.615816 26.988760 230 230 230
33.204719 26.516417 26.943925 230 230 230
33.128132 26.416232 26.901436 230 230 230
32.901368 26.124258 26.522568 230 230 230
32.826566 26.022613 26.480906 230 230 230
32.600327 25.728663 26.098400 230 230 230
32.526792 25.625848 26.056925 230 230 230
32.300855 25.330117 25.670588 230 230 230
32.074825 25.033313 25.281230 230 230 230
32.002510 24.929051 25.238984 230 230 230
31.776620 24.630778 24.846042 230 230 230
31.622408 24.436701 24.493632 230 230 230
31.396005 24.137014 24.095600 230 230 230
31.241184 23.942081 23.739442 230 230 230
31.086085 23.746784 23.381670 230 230 230
30.930673 23.551115 23.022154 230 230 230
30.774917 23.355068 22.660791 230 230 230
30.618794 23.158642 22.297501 230 230 230
30.462289 22.961839 21.932226 230 230 230
30.377512 22.870595 21.612085 230 230 230
30.220110 22.673091 21.242710 230 230 230
30.062279 22.475217 20.871203 230 230 230
29.904022 22.276987 20.497584 230 230 230
29.817095 22.184264 20.168346 230 230 230
29.657797 21.985367 19.790194 230 230 230
29.498080 21.786155 19.410007 230 230 230
29.409130 21.692295 19.072602 230 230 230
29.248352 21.492501 18.687940 230 230 230
29.087191 21.292447 18.301443 230 230 230
28.925663 21.092150 17.913199 230 230 230
28.763788 20.891628 17.523300 230 230 230
28.601585 20.690897 17.131833 230 230 230
28.369541 20.384328 16.698148 230 230 230
28.137707 20.077386 16.263868 230 230 230
27.906075 19.770104 15.829073 230 230 230
27.854690 19.626377 15.738805 230 230 230
27.623675 19.309761 15.257046 230 230 230
27.579820 19.187997 15.235886 230 230 230
27.356140 18.863485 14.758200 230 230 230
27.266838 18.740262 14.561329 230 230 230
27.008364 18.435891 14.017340 230 230 230
26.922794 18.256685 13.718257 230 230 230
26.663881 17.970918 13.191236 230 230 230
26.448141 17.519853 12.444670 230 230 230
26.177600 17.123347 11.628692 230 230 230
26.014682 16.914536 11.207587 230 230 230
25.838926 16.708637 10.734262 230 230 230
25.635608 16.398294 9.978488 230 230 230
25.471794 16.187384 9.549676 230 230 230
25.283638 15.912938 8.938634 230 230 230
25.121524 15.692754 8.493428 230 230 230
24.966088 15.463690 8.040007 230 230 230
24.798887 15.248749 7.581281 230 230 230
24.697268 15.163259 7.228563 230 230 230
24.561578 14.844166 6.642752 230 230 230
24.330403 14.431044 5.968808 230 230 230
24.127734 14.244966 5.463118 230 230 230
23.963148 14.031216 5.025269 230 230 230
23.969241 13.646534 4.605586 230 230 230
-8.076640 -19.607827 -17.675292 230 230 230
-8.070326 -19.682907 -17.381650 230 230 230
-8.070152 -19.747395 -17.081573 230 230 230
-8.077547 -19.800331 -16.777464 230 230 230
-8.084209 -19.853579 -16.471850 230 230 230
-8.093843 -19.903620 -16.167879 230 230 230
-8.112177 -19.935499 -15.845111 230 230 230
-8.131111 -19.968275 -15.527455 230 230 230
-8.149499 -20.002777 -15.212089 230 230 230
-8.169058 -20.036237 -14.897661 230 230 230
-8.189971 -20.066740 -14.580891 230 230 230
-8.335748 -20.224139 -14.459103 230 230 230
-8.362020 -20.251154 -14.151823 230 230 230
-8.390565 -20.270342 -13.831973 230 230 230
-8.418271 -20.298746 -13.533030 230 230 230
-8.453811 -20.312959 -13.224568 230 230 230
-8.489960 -20.322111 -12.905117 230 230 230
-8.522587 -20.343775 -12.605359 230 230 230
-8.579436 -20.262829 -12.115336 230 230 230
-8.586969 -20.184303 -11.450163 230 230 230
-8.708476 -20.267932 -11.040719 230 230 230
-8.742492 -20.228176 -10.578020 230 230 230
-8.774740 -20.080936 -9.804302 230 230 230
-8.911913 -20.047522 -9.117610 230 230 230
-8.943389 -19.953776 -8.487213 230 230 230
-8.978854 -19.939600 -8.098908 230 230 230
-9.014937 -19.925765 -7.713760 230 230 230
-9.059752 -19.912932 -7.361413 230 230 230
-9.097017 -19.900176 -6.983517 230 230 230
-9.134781 -19.888126 -6.609371 230 230 230
-9.173805 -19.874622 -6.235381 230 230 230
-9.212449 -19.864237 -5.869065 230 230 230
-9.368804 -19.963714 -5.624190 230 230 230
-9.408169 -19.954887 -5.264835 230 230 230
-9.447897 -19.947190 -4.909945 230 230 230
-9.487967 -19.940710 -4.559687 230 230 230
-9.645521 -20.040480 -4.320186 230 230 230
-9.695878 -20.026818 -3.986381 230 230 230
-9.736457 -20.023873 -3.647928 230 230 230
-9.777272 -20.022423 -3.314522 230 230 230
-9.818305 -20.022548 -2.986326 230 230 230
-9.976139 -20.123994 -2.752955 230 230 230
-10.018381 -20.127783 -2.438951 230 230 230
-10.059736 -20.131723 -2.122775 230 230 230
-10.101238 -20.137502 -1.812310 230 230 230
