ply
format ascii 1.0
element vertex 320
property float x
property float y
property float z
property uchar red
property uchar green
property uchar blue
end_header
-11.650251 -21.310652 2.967968 230 70 70
-11.520280 -21.455883 2.780821 230 70 70
-11.242004 -21.287010 2.819666 230 70 70
-10.957702 -21.053931 2.931535 230 70 70
-10.667462 -20.781452 2.947388 230 70 70
-10.383377 -20.549076 3.057632 230 70 70
-10.102003 -20.300117 3.169831 230 70 70
-9.821521 -20.007434 3.241982 230 70 70
-9.525633 -19.814081 3.288644 230 70 70
-9.222675 -19.552531 3.302831 230 70 70
-8.882075 -19.339902 3.315443 230 70 70
-8.580694 -19.010152 3.343424 230 70 70
-8.261481 -18.704686 3.370287 230 70 70
-7.951000 -18.387017 3.397361 230 70 70
-7.657509 -18.045746 3.425084 230 70 70
-7.362974 -17.705684 3.452534 230 70 70
-7.052131 -17.387851 3.478927 230 70 70
-6.774501 -17.024053 3.506800 230 70 70
-6.487776 -16.672554 3.533978 230 70 70
-6.185583 -16.342126 3.560158 230 70 70
-5.874264 -16.024051 3.585655 230 70 70
-5.678749 -15.682075 3.539213 230 70 70
-5.367247 -15.363925 3.564238 230 70 70
-5.109944 -15.005256 3.572172 230 70 70
-4.893374 -14.657508 3.543626 230 70 70
-4.581575 -14.339204 3.567962 230 70 70
-4.385830 -13.997023 3.520365 230 70 70
-4.097818 -13.645508 3.545489 230 70 70
-3.795207 -13.313951 3.569626 230 70 70
-3.593454 -12.979753 3.521030 230 70 70
-3.287049 -12.653109 3.544509 230 70 70
-3.088829 -12.313851 3.495632 230 70 70
-2.861613 -12.014770 3.444909 230 70 70
-2.665593 -11.672379 3.395670 230 70 70
-2.353018 -11.353763 3.417862 230 70 70
-2.123447 -11.057913 3.366180 230 70 70
-1.844165 -10.692632 3.389865 230 70 70
-1.614502 -10.396807 3.337670 230 70 70
-1.335055 -10.031380 3.360917 230 70 70
-1.101493 -9.734531 3.311580 230 70 70
-0.809107 -9.393179 3.329996 230 70 70
-0.595848 -9.074242 3.277793 230 70 70
-0.282571 -8.755417 3.298047 230 70 70
-0.086143 -8.412787 3.246424 230 70 70
0.250520 -8.126482 3.264670 230 70 70
0.461962 -7.804816 3.211554 230 70 70
0.699907 -7.499211 3.168349 230 70 70
1.000999 -7.183849 3.176220 230 70 70
1.227433 -6.883274 3.121237 230 70 70
1.438989 -6.561710 3.067044 230 70 70
1.691250 -6.297842 3.009493 230 70 70
1.993300 -5.962053 3.028393 230 70 70
2.235383 -5.683856 2.970973 230 70 70
2.463853 -5.386411 2.914287 230 70 70
2.695713 -5.093888 2.856993 230 70 70
3.012646 -4.788925 2.868026 230 70 70
3.240207 -4.480243 2.816186 230 70 70
3.470442 -4.185522 2.758108 230 70 70
3.785181 -3.867073 2.774255 230 70 70
4.044131 -3.613780 2.712903 230 70 70
4.340332 -3.268374 2.730288 230 70 70
4.599316 -3.015341 2.668219 230 70 70
4.941628 -2.736431 2.680625 230 70 70
5.239260 -2.392578 2.697220 230 70 70
5.498300 -2.139965 2.634044 230 70 70
5.841984 -1.862911 2.645401 230 70 70
6.185763 -1.585942 2.656436 230 70 70
6.414259 -1.289138 2.595354 230 70 70
6.741795 -0.988314 2.607563 230 70 70
7.085810 -0.711568 2.617658 230 70 70
7.413424 -0.439768 2.612817 230 70 70
7.689025 -0.183468 2.561467 230 70 70
8.006527 0.132497 2.573744 230 70 70
8.330766 0.438654 2.584970 230 70 70
8.675196 0.714993 2.593474 230 70 70
9.019717 0.991240 2.601652 230 70 70
9.364328 1.267397 2.609505 230 70 70
9.720239 1.464485 2.605921 230 70 70
10.085586 1.595314 2.592741 230 70 70
10.396664 1.849099 2.592692 230 70 70
-5.110042 -2.395369 -11.838054 70 140 240
-5.347814 -2.365372 -12.360149 70 140 240
-5.648823 -2.464712 -12.961804 70 140 240
-5.904619 -2.359201 -13.369083 70 140 240
-5.961226 -2.128631 -13.684201 70 140 240
-6.065216 -1.954969 -14.058753 70 140 240
-6.069809 -1.673606 -14.324216 70 140 240
-6.030375 -1.446003 -14.682882 70 140 240
-6.138825 -1.379330 -15.203568 70 140 240
-6.070277 -1.207575 -15.576523 70 140 240
-6.094353 -1.049748 -16.004681 70 140 240
-6.139421 -0.915016 -16.455708 70 140 240
-6.100236 -0.688871 -16.814669 70 140 240
-6.208561 -0.623524 -17.334558 70 140 240
-6.169460 -0.397945 -17.693578 70 140 240
-6.133670 -0.176184 -18.056256 70 140 240
-6.238679 -0.108085 -18.572146 70 140 240
-6.199723 0.116652 -18.931340 70 140 240
-6.160829 0.341113 -19.290651 70 140 240
-6.166219 0.520225 -19.693689 70 140 240
-6.249807 0.709416 -20.049842 70 140 240
-6.211039 0.933103 -20.409343 70 140 240
-6.172333 1.156514 -20.768958 70 140 240
-6.134707 1.383855 -21.122493 70 140 240
-6.114647 1.683424 -21.369471 70 140 240
-6.095644 1.987071 -21.610393 70 140 240
-6.076678 2.290589 -21.851454 70 140 240
-6.055825 2.585970 -22.104401 70 140 240
-6.038864 2.897239 -22.333991 70 140 240
-5.977026 3.217059 -22.533507 70 140 240
-5.882307 3.549586 -22.701069 70 140 240
-5.863553 3.852526 -22.942853 70 140 240
-5.807106 4.170039 -23.147984 70 140 240
-5.714752 4.535608 -23.265448 70 140 240
-5.688680 4.807005 -23.553206 70 140 240
-5.689578 5.191305 -23.676503 70 140 240
-5.651555 5.411849 -24.038071 70 140 240
-5.637561 5.733067 -24.253123 70 140 240
-5.634049 6.098223 -24.404423 70 140 240
-5.521716 6.551950 -24.379580 70 140 240
-5.406569 6.920510 -24.484948 70 140 240
-5.380288 7.262253 -24.664364 70 140 240
-5.262695 7.693429 -24.673226 70 140 240
-5.200178 8.099016 -24.741895 70 140 240
-5.132247 8.449109 -24.893730 70 140 240
-5.009524 8.858137 -24.935557 70 140 240
-5.039134 9.211494 -25.090585 70 140 240
-5.151876 9.434455 -25.385846 70 140 240
-5.140977 9.766526 -25.586338 70 140 240
-5.155705 10.207424 -25.630583 70 140 240
-5.143885 10.535225 -25.837415 70 140 240
-5.066498 11.017677 -25.785497 70 140 240
-4.951784 11.473815 -25.760431 70 140 240
-4.743373 11.921500 -25.714561 70 140 240
-4.547924 12.422457 -25.553152 70 140 240
-4.334649 12.839902 -25.387825 70 140 240
-4.117681 13.238246 -25.222665 70 140 240
-3.885596 13.576190 -25.229913 70 140 240
-3.660875 13.933841 -25.065303 70 140 240
-3.488430 14.183369 -24.964747 70 140 240
-3.524649 14.100728 -25.102060 70 140 240
-3.457619 14.132089 -25.131451 70 140 240
-3.295192 14.360715 -25.046962 70 140 240
-3.073440 14.712042 -24.891840 70 140 240
-2.871626 15.163079 -24.739164 70 140 240
-2.650308 15.520364 -24.568399 70 140 240
-2.438552 16.015666 -24.215194 70 140 240
-2.225186 16.401136 -24.065358 70 140 240
-2.023884 16.848878 -23.916343 70 140 240
-1.804636 17.197933 -23.769269 70 140 240
-1.604211 17.646878 -23.622221 70 140 240
-1.393104 18.149331 -23.254435 70 140 240
-1.181108 18.531281 -23.110422 70 140 240
-0.962927 18.875440 -22.968768 70 140 240
-0.745216 19.218600 -22.828785 70 140 240
-0.527980 19.560755 -22.690481 70 140 240
-0.306760 19.987486 -22.345040 70 140 240
-0.090056 20.333893 -22.195048 70 140 240
0.033203 20.481001 -22.175687 70 140 240
0.248459 20.818932 -22.044224 70 140 240
0.388518 21.000803 -22.006699 70 140 240
0.584414 21.298507 -21.901462 70 140 240
0.798030 21.632961 -21.775455 70 140 240
0.921701 21.839372 -21.604902 70 140 240
1.063633 22.067052 -21.457263 70 140 240
1.259809 22.427564 -21.189122 70 140 240
1.480957 22.914795 -20.689998 70 140 240
1.601092 23.096994 -20.572809 70 140 240
1.746612 23.389561 -20.270222 70 140 240
1.871432 23.696755 -19.839385 70 140 240
1.974314 23.900509 -19.592219 70 140 240
2.043920 24.034925 -19.388077 70 140 240
2.095421 24.129698 -19.212987 70 140 240
2.141972 24.159938 -19.191284 70 140 240
2.191914 24.252949 -19.016244 70 140 240
2.241117 24.345451 -18.840341 70 140 240
2.293803 24.500281 -18.512282 70 140 240
2.345817 24.654744 -18.183073 70 140 240
2.290770 24.626967 -18.123707 70 140 240
2.231812 24.655989 -17.912981 70 140 240
15.126516 9.437600 8.209513 70 200 120
15.574223 9.521046 8.356779 70 200 120
15.991926 9.677654 8.437699 70 200 120
16.399040 9.830605 8.474809 70 200 120
16.716699 10.108817 8.365001 70 200 120
17.063443 10.341288 8.249551 70 200 120
17.418821 10.559881 8.132055 70 200 120
17.774144 10.778188 8.014074 70 200 120
18.129410 10.996206 7.895607 70 200 120
18.484620 11.213937 7.776653 70 200 120
18.737073 11.426408 7.581127 70 200 120
18.985673 11.669963 7.400437 70 200 120
19.327275 11.882529 7.268082 70 200 120
19.460435 12.114720 6.998264 70 200 120
19.725955 12.303927 6.797929 70 200 120
19.897951 12.549722 6.563256 70 200 120
20.148598 12.731656 6.347782 70 200 120
20.353240 12.987473 6.141765 70 200 120
20.596741 13.191793 5.933671 70 200 120
20.829627 13.430874 5.737793 70 200 120
21.033986 13.716152 5.547985 70 200 120
21.252482 13.978007 5.354616 70 200 120
21.488714 14.210407 5.156776 70 200 120
21.731008 14.514785 5.004287 70 200 120
21.996141 14.791422 4.851872 70 200 120
22.214321 15.052463 4.657115 70 200 120
22.521166 15.342526 4.541449 70 200 120
22.827986 15.632451 4.425414 70 200 120
23.134779 15.922240 4.309009 70 200 120
23.409281 16.265047 4.199745 70 200 120
23.716018 16.554587 4.082597 70 200 120
23.990429 16.897159 3.972528 70 200 120
24.304225 17.138413 3.849934 70 200 120
24.582974 17.450468 3.736030 70 200 120
24.857190 17.792608 3.624667 70 200 120
25.147293 18.090052 3.507691 70 200 120
25.449303 18.344905 3.385593 70 200 120
25.726092 18.667435 3.270980 70 200 120
26.008592 18.949489 3.151743 70 200 120
26.293694 19.212062 3.029930 70 200 120
26.587196 19.413732 2.901023 70 200 120
26.874482 19.657203 2.775863 70 200 120
27.175839 19.797441 2.638581 70 200 120
27.477389 19.932310 2.499567 70 200 120
27.774736 20.086378 2.388625 70 200 120
27.967814 20.101737 2.225327 70 200 120
28.139161 20.102702 2.068270 70 200 120
28.317424 20.001521 1.774768 70 200 120
28.483077 19.991969 1.608979 70 200 120
28.586477 19.863253 1.365619 70 200 120
28.763422 19.875735 1.211837 70 200 120
28.939626 19.886963 1.056220 70 200 120
29.080341 19.715283 0.712871 70 200 120
29.242127 19.699347 0.537811 70 200 120
29.386743 19.765697 0.483427 70 200 120
29.563387 19.663625 0.182097 70 200 120
29.537504 19.386623 -0.202928 70 200 120
29.488067 19.084886 -0.612676 70 200 120
29.439134 18.776495 -1.032215 70 200 120
29.330668 18.416852 -1.497996 70 200 120
29.298548 18.135989 -1.887268 70 200 120
29.362992 18.049690 -2.048599 70 200 120
29.329938 17.763282 -2.445989 70 200 120
29.400354 17.636138 -2.667237 70 200 120
29.545304 17.644098 -2.806565 70 200 120
29.658785 17.655266 -2.908033 70 200 120
29.822466 17.650326 -3.086620 70 200 120
29.881478 17.606791 -3.197563 70 200 120
29.862561 17.335819 -3.582050 70 200 120
29.778836 17.136759 -3.840533 70 200 120
-22.435132 -38.210155 -10.935179 230 160 50
-21.944152 -38.312673 -10.733495 230 160 50
-21.278313 -38.058633 -10.281513 230 160 50
-20.699134 -37.983272 -9.955074 230 160 50
-20.119444 -37.908180 -9.628900 230 160 50
-19.539245 -37.833356 -9.302992 230 160 50
-18.911025 -37.586390 -9.046169 230 160 50
-18.341951 -37.514203 -8.778848 230 160 50
-17.708176 -37.267045 -8.501195 230 160 50
-17.145784 -37.196912 -8.270419 230 160 50
-16.499751 -36.948263 -7.940588 230 160 50
-15.858532 -36.700772 -7.636853 230 160 50
-15.289491 -36.630690 -7.382174 230 160 50
-14.705405 -36.558129 -7.059465 230 160 50
-14.083399 -36.410857 -6.683683 230 160 50
-13.448048 -36.233410 -6.298854 230 160 50
-12.883155 -36.165801 -6.073183 230 160 50
-12.297000 -36.094292 -5.751626 230 160 50
-11.657258 -35.885726 -5.411024 230 160 50
-11.055891 -35.775548 -5.089516 230 160 50
-10.376467 -35.522883 -4.638570 230 160 50
-9.822782 -35.521101 -4.367265 230 160 50
-9.316612 -35.614281 -4.164329 230 160 50
-8.743859 -35.529264 -3.714816 230 160 50
-8.186017 -35.497547 -3.484235 230 160 50
-7.558557 -35.336241 -3.144603 230 160 50
-7.048348 -35.425126 -2.939680 230 160 50
-6.389415 -35.179482 -2.601559 230 160 50
-5.798012 -35.111182 -2.283657 230 160 50
-5.231658 -35.049287 -2.078835 230 160 50
-4.566496 -34.803223 -1.721832 230 160 50
-3.883963 -34.553148 -1.292076 230 160 50
-3.217676 -34.116129 -0.795641 230 160 50
-2.546438 -33.707897 -0.301248 230 160 50
-1.885540 -33.129976 0.371673 230 160 50
-1.254539 -32.587343 0.783819 230 160 50
-0.605448 -31.956860 1.330541 230 160 50
-0.062720 -31.349525 1.696156 230 160 50
0.532107 -30.730641 2.104163 230 160 50
0.970029 -30.144485 2.473425 230 160 50
1.351476 -29.571848 2.701845 230 160 50
1.663471 -29.014474 2.962596 230 160 50
1.906667 -28.474177 3.071330 230 160 50
2.002676 -28.084723 3.029470 230 160 50
2.256577 -27.544506 3.184361 230 160 50
2.481926 -27.012166 3.215974 230 160 50
2.600295 -26.602151 3.188470 230 160 50
2.675248 -26.243890 3.141118 230 160 50
2.925592 -25.710029 3.281001 230 160 50
3.025125 -25.329499 3.257473 230 160 50
3.124640 -24.950814 3.234637 230 160 50
3.371554 -24.422246 3.360428 230 160 50
3.623017 -23.894123 3.505796 230 160 50
3.866419 -23.369009 3.616162 230 160 50
4.237598 -22.812121 3.869686 230 160 50
4.597028 -22.258205 4.071139 230 160 50
4.969974 -21.702405 4.329903 230 160 50
5.294977 -21.160925 4.564582 230 160 50
5.607108 -20.624094 4.785471 230 160 50
5.959550 -20.074644 4.952632 230 160 50
6.276396 -19.535843 5.085979 230 160 50
6.542937 -19.012155 5.171915 230 160 50
6.905906 -18.463341 5.381963 230 160 50
7.269002 -17.915284 5.591478 230 160 50
7.595859 -17.373891 5.643412 230 160 50
7.922703 -16.833110 5.694391 230 160 50
8.284996 -16.287350 5.897395 230 160 50
8.595620 -15.722511 5.947821 230 160 50
8.992815 -15.107606 6.091313 230 160 50
9.342289 -14.561916 6.156760 230 160 50
